# .PCD v0.7 - Point Cloud Data file format
VERSION 0.7
FIELDS x y z rgb
SIZE 4 4 4 4
TYPE F F F F
COUNT 1 1 1 1
WIDTH 1047
HEIGHT 1
POINTS 1047
DATA ascii
-12.891675 2.070580 -0.460064 126.0 182.0 132.0
-13.941147 1.720789 -0.628533 176.0 69.0 66.0
-13.527955 1.175826 -0.738025 176.0 69.0 66.0
-13.138376 0.662242 -0.842399 176.0 69.0 66.0
-10.714773 1.727079 -0.779100 176.0 69.0 66.0
-10.109642 1.254306 -0.831093 176.0 69.0 66.0
-10.213825 0.891360 -0.932884 176.0 69.0 66.0
-10.107730 0.511428 -1.020703 176.0 69.0 66.0
-8.545979 1.381171 -0.942272 176.0 69.0 66.0
-8.504114 1.060233 -1.016292 176.0 69.0 66.0
-8.364119 0.733908 -1.076628 176.0 69.0 66.0
-8.022264 0.410119 -1.109491 239.0 220.0 109.0
-7.408420 1.202764 -1.095859 176.0 69.0 66.0
-7.159241 0.895482 -1.123651 176.0 69.0 66.0
-7.075821 0.623729 -1.176319 98.0 58.0 18.0
-6.800559 0.348138 -1.197751 176.0 69.0 66.0
-6.309858 1.032325 -1.176010 176.0 69.0 66.0
-6.150446 0.772681 -1.200657 176.0 69.0 66.0
-6.033751 0.534737 -1.234924 239.0 220.0 109.0
-5.752751 0.295102 -1.233958 176.0 69.0 66.0
-5.468073 0.897838 -1.233854 176.0 69.0 66.0
-5.330056 0.673774 -1.250115 176.0 69.0 66.0
-23.700422 3.825618 4.471144 73.0 64.0 109.0
-24.486237 2.122178 4.083852 75.0 205.0 254.0
-15.241790 2.463538 2.293415 73.0 64.0 109.0
-24.611546 3.060446 3.436143 73.0 64.0 109.0
-15.628186 2.532710 1.763543 73.0 64.0 109.0
-15.797717 1.972566 1.614046 73.0 64.0 109.0
-22.447275 1.974677 2.071770 73.0 64.0 109.0
-15.381514 2.496591 1.161011 73.0 64.0 109.0
-15.169464 1.898960 0.991837 73.0 64.0 109.0
-24.033415 2.126468 1.331185 73.0 64.0 109.0
-36.390656 1.896546 1.663655 73.0 64.0 109.0
-15.521562 2.525718 0.595875 73.0 64.0 109.0
-22.185799 2.786332 0.631604 73.0 64.0 109.0
-25.231941 2.244498 0.473565 126.0 182.0 132.0
-11.912007 1.946470 0.016010 126.0 182.0 132.0
-20.505804 2.586611 -0.170268 126.0 182.0 132.0
-22.474577 2.011474 -0.402530 126.0 182.0 132.0
-19.720896 1.045037 -0.541969 176.0 69.0 66.0
-11.391104 1.865435 -0.406716 126.0 182.0 132.0
-13.073548 1.654435 -0.589643 126.0 182.0 132.0
-13.485498 1.213832 -0.735908 176.0 69.0 66.0
-13.048589 0.697857 -0.836776 176.0 69.0 66.0
-10.939734 1.797792 -0.795855 176.0 69.0 66.0
-10.178911 1.294622 -0.837110 176.0 69.0 66.0
-10.212035 0.922781 -0.932974 176.0 69.0 66.0
-10.065379 0.540249 -1.016589 239.0 220.0 109.0
-8.571129 1.412232 -0.945518 176.0 69.0 66.0
-8.490972 1.085059 -1.015115 176.0 69.0 66.0
-8.307499 0.754630 -1.069633 176.0 69.0 66.0
-7.952717 0.431030 -1.100050 239.0 220.0 109.0
-7.400790 1.224840 -1.095281 98.0 58.0 18.0
-7.144699 0.915934 -1.121805 176.0 69.0 66.0
-7.018855 0.640414 -1.167170 98.0 58.0 18.0
-6.792574 0.368627 -1.196539 176.0 69.0 66.0
-6.297930 1.050222 -1.174382 98.0 58.0 18.0
-6.150968 0.791923 -1.201228 239.0 220.0 109.0
-6.030130 0.553066 -1.234525 239.0 220.0 109.0
-5.772323 0.313865 -1.238357 176.0 69.0 66.0
-5.424859 0.907844 -1.224726 176.0 69.0 66.0
-5.373362 0.696003 -1.260767 176.0 69.0 66.0
-23.555676 3.876442 4.446060 73.0 64.0 109.0
-23.883657 3.029543 4.236846 73.0 64.0 109.0
-24.177977 2.170216 4.033532 73.0 64.0 109.0
-15.664569 2.581211 2.358211 73.0 64.0 109.0
-25.312450 3.226492 3.535365 73.0 64.0 109.0
-15.759583 2.603648 1.779263 73.0 64.0 109.0
-15.716590 2.011425 1.606381 73.0 64.0 109.0
-15.609909 2.582839 1.178843 73.0 64.0 109.0
-22.230659 2.852201 1.454090 73.0 64.0 109.0
-15.138540 1.386274 0.838739 73.0 64.0 109.0
-36.395641 2.008787 1.664157 73.0 64.0 109.0
-15.555143 2.580193 0.597465 73.0 64.0 109.0
-20.552204 2.645241 0.585326 73.0 64.0 109.0
-16.104095 1.482345 0.302333 126.0 182.0 132.0
-11.746181 1.956391 0.015795 126.0 182.0 132.0
-12.745531 1.647467 -0.105873 126.0 182.0 132.0
-21.482674 1.989153 -0.384872 126.0 182.0 132.0
-19.633760 1.100834 -0.539665 176.0 69.0 66.0
-12.423314 2.073628 -0.443795 126.0 182.0 132.0
-13.007978 1.686700 -0.586917 126.0 182.0 132.0
-13.451884 1.252423 -0.734280 176.0 69.0 66.0
-12.746480 0.720924 -0.817540 176.0 69.0 66.0
-10.943021 1.832829 -0.796500 126.0 182.0 132.0
-10.162044 1.324170 -0.836053 176.0 69.0 66.0
-10.140738 0.947713 -0.926722 98.0 58.0 18.0
-9.988179 0.566842 -1.008963 176.0 69.0 66.0
-8.526559 1.431772 -0.941081 176.0 69.0 66.0
-8.422617 1.102597 -1.007342 176.0 69.0 66.0
-8.309094 0.780484 -1.070141 176.0 69.0 66.0
-7.936523 0.454577 -1.097998 239.0 220.0 109.0
-7.275031 1.226970 -1.077221 176.0 69.0 66.0
-7.116384 0.934505 -1.117804 176.0 69.0 66.0
-6.992302 0.659628 -1.163085 98.0 58.0 18.0
-6.765847 0.387998 -1.192035 98.0 58.0 18.0
-6.276257 1.066409 -1.170945 98.0 58.0 18.0
-6.143642 0.810149 -1.200277 176.0 69.0 66.0
-6.028405 0.571564 -1.234525 239.0 220.0 109.0
-5.770356 0.331517 -1.238147 176.0 69.0 66.0
-5.406653 0.921858 -1.221248 176.0 69.0 66.0
-5.362512 0.711333 -1.258727 176.0 69.0 66.0
-23.527189 3.945927 4.442947 73.0 64.0 109.0
-24.012936 3.120827 4.261458 73.0 64.0 109.0
-15.320033 2.572740 2.307520 73.0 64.0 109.0
-25.569590 3.339021 3.572693 73.0 64.0 109.0
-15.964194 2.687792 1.803286 73.0 64.0 109.0
-15.627483 2.048770 1.597908 73.0 64.0 109.0
-27.158829 2.557178 2.508024 73.0 64.0 109.0
-15.679596 2.643816 1.184713 73.0 64.0 109.0
-16.318087 2.144523 1.067778 73.0 64.0 109.0
-15.166025 1.435723 0.840502 73.0 64.0 109.0
-15.501831 2.620243 0.595724 73.0 64.0 109.0
-15.290556 2.015729 0.435648 73.0 64.0 109.0
-16.115396 1.533260 0.302632 126.0 182.0 132.0
-29.041559 1.709062 0.264036 126.0 182.0 132.0
-12.892643 2.188013 0.017346 126.0 182.0 132.0
-12.652189 1.674883 -0.105140 126.0 182.0 132.0
-21.281393 2.036385 -0.381376 126.0 182.0 132.0
-19.612329 1.160002 -0.539171 176.0 69.0 66.0
-11.748905 1.998129 -0.419921 126.0 182.0 132.0
-12.886876 1.711214 -0.581687 126.0 182.0 132.0
-13.228318 1.272555 -0.722286 176.0 69.0 66.0
-12.666506 0.755392 -0.812556 176.0 69.0 66.0
-10.703341 1.826461 -0.779458 126.0 182.0 132.0
-10.436530 1.392513 -0.858983 176.0 69.0 66.0
-10.113992 0.976522 -0.924547 176.0 69.0 66.0
-9.950638 0.595343 -1.005350 176.0 69.0 66.0
-8.474112 1.449710 -0.935779 176.0 69.0 66.0
-8.482185 1.136874 -1.014879 176.0 69.0 66.0
-8.319494 0.807218 -1.071795 176.0 69.0 66.0
-8.260405 0.498558 -1.143012 176.0 69.0 66.0
-7.279035 1.250624 -1.078377 176.0 69.0 66.0
-7.137965 0.959625 -1.121651 176.0 69.0 66.0
-6.971589 0.679259 -1.159981 98.0 58.0 18.0
-6.793134 0.410477 -1.197058 239.0 220.0 109.0
-6.248728 1.081466 -1.166423 161.0 67.0 57.0
-6.106103 0.824265 -1.193431 98.0 58.0 18.0
-6.005169 0.587956 -1.230130 239.0 220.0 109.0
-5.762480 0.348805 -1.236681 176.0 69.0 66.0
-5.410531 0.939610 -1.222770 176.0 69.0 66.0
-5.351618 0.726602 -1.256687 239.0 220.0 109.0
-23.142859 3.954504 4.372640 73.0 64.0 109.0
-23.994461 3.193313 4.259898 73.0 64.0 109.0
-15.682561 2.683117 2.363353 73.0 64.0 109.0
-25.104652 3.356672 3.509153 73.0 64.0 109.0
-25.316816 2.446958 3.276773 73.0 64.0 109.0
-15.853019 2.719115 1.791662 73.0 64.0 109.0
-15.460397 2.075131 1.581467 73.0 64.0 109.0
-26.960560 2.621981 2.490445 73.0 64.0 109.0
-15.590818 2.678065 1.178620 73.0 64.0 109.0
-16.387583 2.204822 1.072764 73.0 64.0 109.0
-15.272848 1.493126 0.846672 73.0 64.0 109.0
-15.510461 2.670672 0.596367 73.0 64.0 109.0
-15.986650 2.157414 0.455667 73.0 64.0 109.0
-24.569414 2.413679 0.461528 126.0 182.0 132.0
-28.961325 1.793517 0.263355 126.0 182.0 132.0
-11.342758 1.960802 0.015269 126.0 182.0 132.0
-11.211162 1.519134 -0.093203 126.0 182.0 132.0
-21.025299 2.076994 -0.376899 126.0 182.0 132.0
-19.636614 1.221905 -0.539939 176.0 69.0 66.0
-11.360651 1.967979 -0.406258 126.0 182.0 132.0
-12.821181 1.742536 -0.578960 126.0 182.0 132.0
-13.045497 1.295373 -0.712518 176.0 69.0 66.0
-12.663133 0.794187 -0.812492 176.0 69.0 66.0
-9.436881 1.640158 -0.687593 126.0 182.0 132.0
-9.916721 1.354135 -0.816538 176.0 69.0 66.0
-10.105002 1.006955 -0.924003 176.0 69.0 66.0
-9.854431 0.619934 -0.995817 176.0 69.0 66.0
-8.454933 1.473142 -0.934156 176.0 69.0 66.0
-8.618361 1.182053 -1.031601 176.0 69.0 66.0
-8.389026 0.839952 -1.081079 176.0 69.0 66.0
-8.241041 0.522769 -1.140550 161.0 67.0 57.0
-7.279062 1.273632 -1.078955 176.0 69.0 66.0
-7.111495 0.978287 -1.117958 98.0 58.0 18.0
-6.950822 0.698770 -1.156877 176.0 69.0 66.0
-6.782996 0.430754 -1.195499 239.0 220.0 109.0
-6.227946 1.097559 -1.163166 98.0 58.0 18.0
-6.131748 0.846890 -1.198946 98.0 58.0 18.0
-6.045257 0.610611 -1.238720 239.0 220.0 109.0
-5.776996 0.367475 -1.240033 239.0 220.0 109.0
-5.408584 0.956374 -1.222987 176.0 69.0 66.0
-5.332963 0.740739 -1.252835 176.0 69.0 66.0
-23.146114 4.028184 4.375569 73.0 64.0 109.0
-23.997238 3.268640 4.262152 73.0 64.0 109.0
-15.821398 2.756857 2.385540 73.0 64.0 109.0
-25.057924 3.428708 3.504075 73.0 64.0 109.0
-24.939100 2.487701 3.228858 73.0 64.0 109.0
-15.619426 2.728405 1.766199 73.0 64.0 109.0
-15.315967 2.103601 1.567346 73.0 64.0 109.0
-26.724501 2.681814 2.469388 73.0 64.0 109.0
-15.635574 2.735163 1.182632 73.0 64.0 109.0
-16.408422 2.258899 1.074576 73.0 64.0 109.0
-15.558281 1.569234 0.862758 73.0 64.0 109.0
-38.358429 2.471431 1.754869 73.0 64.0 109.0
-15.516957 2.720833 0.596935 73.0 64.0 109.0
-15.509609 2.141506 0.442255 73.0 64.0 109.0
-24.714087 2.504469 0.464388 126.0 182.0 132.0
-11.337673 1.995765 0.015270 126.0 182.0 132.0
-15.587403 2.160843 -0.129639 126.0 182.0 132.0
-20.882557 2.127605 -0.374456 126.0 182.0 132.0
-19.629780 1.281948 -0.539857 176.0 69.0 66.0
-10.590832 1.868110 -0.378932 126.0 182.0 132.0
-12.827649 1.783513 -0.579497 126.0 182.0 132.0
-12.361028 1.265717 -0.675342 176.0 69.0 66.0
-12.539149 0.825039 -0.804695 98.0 58.0 18.0
-10.658538 1.886192 -0.777024 126.0 182.0 132.0
-9.914495 1.384829 -0.816701 176.0 69.0 66.0
-10.089977 1.036730 -0.922916 176.0 69.0 66.0
-9.612226 0.634310 -0.971534 176.0 69.0 66.0
-8.435691 1.496469 -0.932533 176.0 69.0 66.0
-8.504553 1.193038 -1.018412 176.0 69.0 66.0
-8.396276 0.866703 -1.082351 176.0 69.0 66.0
-8.236433 0.547853 -1.140139 98.0 58.0 18.0
-7.260508 1.293355 -1.076788 176.0 69.0 66.0
-7.128029 1.002854 -1.121035 176.0 69.0 66.0
-6.931963 0.718363 -1.154099 98.0 58.0 18.0
-6.769850 0.450777 -1.193420 239.0 220.0 109.0
-6.231326 1.117877 -1.164433 98.0 58.0 18.0
-6.100930 0.861716 -1.193431 239.0 220.0 109.0
-6.037508 0.628546 -1.237521 239.0 220.0 109.0
-5.789501 0.386108 -1.242965 239.0 220.0 109.0
-5.425798 0.976594 -1.227551 176.0 69.0 66.0
-5.270879 0.748606 -1.238783 239.0 220.0 109.0
-25.155832 4.457498 4.758051 73.0 64.0 109.0
-23.988071 3.342383 4.262325 73.0 64.0 109.0
-24.676517 2.520583 4.121552 73.0 64.0 109.0
-15.598600 2.767370 2.353215 73.0 64.0 109.0
-23.478706 3.286033 3.284633 73.0 64.0 109.0
-15.466165 2.750557 1.749815 73.0 64.0 109.0
-21.086813 2.962151 2.158820 73.0 64.0 109.0
-14.767574 1.527708 1.364975 73.0 64.0 109.0
-15.663435 2.789589 1.185381 73.0 64.0 109.0
-16.289753 2.293507 1.067261 73.0 64.0 109.0
-15.846366 1.647416 0.879010 73.0 64.0 109.0
-15.459352 2.759646 0.595042 73.0 64.0 109.0
-15.176337 2.142958 0.432938 73.0 64.0 109.0
-24.626734 2.571970 0.462892 126.0 182.0 132.0
-13.002874 2.330040 0.017522 126.0 182.0 132.0
-15.454962 2.190830 -0.128593 126.0 182.0 132.0
-20.873941 2.191453 -0.374420 126.0 182.0 132.0
-19.470177 1.331526 -0.535577 176.0 69.0 66.0
-10.266348 1.843369 -0.367523 126.0 182.0 132.0
-12.905197 1.834671 -0.583251 126.0 182.0 132.0
-12.620236 1.331396 -0.689724 176.0 69.0 66.0
-12.880039 0.887164 -0.826743 176.0 69.0 66.0
-9.817329 1.768407 -0.716091 126.0 182.0 132.0
-9.832251 1.404108 -0.810277 176.0 69.0 66.0
-10.074865 1.066423 -0.921828 98.0 58.0 18.0
-9.933819 0.686147 -1.004246 176.0 69.0 66.0
-8.432039 1.522519 -0.932641 176.0 69.0 66.0
-8.470380 1.214753 -1.014761 176.0 69.0 66.0
-8.344261 0.887215 -1.075992 176.0 69.0 66.0
-8.129964 0.565829 -1.125636 98.0 58.0 18.0
-7.402551 1.342102 -1.098459 166.0 68.0 60.0
-7.087753 1.019372 -1.115188 176.0 69.0 66.0
-6.909125 0.737427 -1.150669 98.0 58.0 18.0
-6.755663 0.470654 -1.191168 239.0 220.0 109.0
-6.233672 1.138049 -1.165518 176.0 69.0 66.0
-6.103116 0.881131 -1.194382 176.0 69.0 66.0
-6.025808 0.646021 -1.235524 239.0 220.0 109.0
-5.777559 0.403120 -1.240661 239.0 220.0 109.0
-5.421817 0.993060 -1.227334 176.0 69.0 66.0
-5.365909 0.778904 -1.261673 239.0 220.0 109.0
-24.746172 2.604434 4.134501 73.0 64.0 109.0
-15.794451 2.852125 2.384070 73.0 64.0 109.0
-23.313585 3.335881 3.262949 73.0 64.0 109.0
-25.180788 2.667952 3.262208 73.0 64.0 109.0
-28.179985 4.046757 2.886261 73.0 64.0 109.0
-15.777768 1.681152 1.458818 73.0 64.0 109.0
-15.661672 2.838876 1.185902 73.0 64.0 109.0
-15.818409 2.276658 1.036832 73.0 64.0 109.0
-15.912719 1.703678 0.882976 73.0 64.0 109.0
-24.377876 1.720928 1.115732 73.0 64.0 109.0
-15.366258 2.791700 0.591786 73.0 64.0 109.0
-15.487272 2.235346 0.442001 73.0 64.0 109.0
-21.421722 2.303704 0.402781 126.0 182.0 132.0
-12.822519 2.338346 0.017289 126.0 182.0 132.0
-15.542183 2.251856 -0.129376 126.0 182.0 132.0
-20.622583 2.229052 -0.370032 126.0 182.0 132.0
-19.369282 1.384341 -0.532916 176.0 69.0 66.0
-10.193793 1.862642 -0.365128 126.0 182.0 132.0
-12.561399 1.825129 -0.567964 126.0 182.0 132.0
-12.410605 1.347792 -0.678490 176.0 69.0 66.0
-12.466164 0.897092 -0.800350 176.0 69.0 66.0
-9.198678 1.686121 -0.671339 126.0 182.0 132.0
-9.821980 1.433403 -0.809789 176.0 69.0 66.0
-9.988384 1.088266 -0.914217 176.0 69.0 66.0
-9.914797 0.715403 -1.002540 98.0 58.0 18.0
-8.442972 1.551256 -0.934372 176.0 69.0 66.0
-8.458753 1.239582 -1.013819 176.0 69.0 66.0
-8.327696 0.911300 -1.074211 176.0 69.0 66.0
-8.064959 0.586173 -1.116879 98.0 58.0 18.0
-7.412022 1.367320 -1.100482 98.0 58.0 18.0
-7.066019 1.038383 -1.112264 176.0 69.0 66.0
-7.008820 0.769823 -1.167660 98.0 58.0 18.0
-6.764993 0.492164 -1.193074 239.0 220.0 109.0
-6.183737 1.148548 -1.156835 176.0 69.0 66.0
-6.081930 0.897129 -1.190769 176.0 69.0 66.0
-6.073469 0.669984 -1.245711 239.0 220.0 109.0
-5.776295 0.420843 -1.240661 239.0 220.0 109.0
-5.415865 1.009153 -1.226682 239.0 220.0 109.0
-5.189111 0.769503 -1.220652 239.0 220.0 109.0
-23.770418 4.362607 4.500988 73.0 64.0 109.0
-25.403658 3.698663 4.517801 73.0 64.0 109.0
-24.620378 2.667591 4.114831 73.0 64.0 109.0
-23.413822 4.302230 3.536141 73.0 64.0 109.0
-23.406153 3.422438 3.277359 73.0 64.0 109.0
-24.588797 2.681539 3.186565 73.0 64.0 109.0
-24.447063 4.502673 2.768972 73.0 64.0 109.0
-15.781445 1.730527 1.459642 73.0 64.0 109.0
-15.651908 2.886731 1.185827 73.0 64.0 109.0
-15.643512 2.300496 1.025826 73.0 64.0 109.0
-16.032471 1.766266 0.889917 73.0 64.0 109.0
-24.042721 1.771415 1.100636 73.0 64.0 109.0
-13.293102 2.457207 0.512232 73.0 64.0 109.0
-15.519898 2.288683 0.443131 73.0 64.0 109.0
-24.357079 2.694990 0.458126 126.0 182.0 132.0
-29.413803 2.184178 0.267694 126.0 182.0 132.0
-12.466243 2.312915 0.016818 126.0 182.0 132.0
-12.894069 1.908587 -0.107381 126.0 182.0 132.0
-20.450691 2.273969 -0.367071 126.0 182.0 132.0
-19.231367 1.433799 -0.529240 176.0 69.0 66.0
-10.030823 1.864683 -0.359494 126.0 182.0 132.0
-12.554753 1.863511 -0.567919 126.0 182.0 132.0
-12.210918 1.364023 -0.667799 176.0 69.0 66.0
-12.426533 0.932570 -0.797985 176.0 69.0 66.0
-8.701236 1.622547 -0.635395 126.0 182.0 132.0
-9.849081 1.468232 -0.812391 176.0 69.0 66.0
-9.909781 1.110476 -0.907330 176.0 69.0 66.0
-9.887752 0.743952 -1.000032 98.0 58.0 18.0
-8.452832 1.579891 -0.935996 176.0 69.0 66.0
-8.454909 1.265528 -1.013819 176.0 69.0 66.0
-8.306133 0.934737 -1.071795 176.0 69.0 66.0
-8.056208 0.610389 -1.115922 98.0 58.0 18.0
-7.410710 1.390600 -1.100916 176.0 69.0 66.0
-7.049119 1.058003 -1.110110 176.0 69.0 66.0
-7.048580 0.796083 -1.174685 176.0 69.0 66.0
-6.756576 0.512395 -1.191861 239.0 220.0 109.0
-6.203378 1.171895 -1.161177 98.0 58.0 18.0
-6.067500 0.914029 -1.188487 176.0 69.0 66.0
-6.059702 0.687289 -1.243314 239.0 220.0 109.0
-5.804227 0.440784 -1.246945 239.0 220.0 109.0
-5.414662 1.026127 -1.227116 176.0 69.0 66.0
-5.344658 0.809335 -1.257820 227.0 192.0 101.0
-22.878468 4.271502 4.334556 73.0 64.0 109.0
-25.331793 3.767600 4.507055 73.0 64.0 109.0
-22.140404 4.138502 3.345721 73.0 64.0 109.0
-25.106050 3.749703 3.516975 73.0 64.0 109.0
-24.450718 4.580948 2.770965 73.0 64.0 109.0
-15.829166 2.372349 1.622721 73.0 64.0 109.0
-15.765177 1.777708 1.458635 73.0 64.0 109.0
-15.188194 2.849416 1.151352 73.0 64.0 109.0
-15.634406 2.348182 1.025697 73.0 64.0 109.0
-15.299739 1.733068 0.849537 73.0 64.0 109.0
-24.083986 1.848762 1.102779 73.0 64.0 109.0
-15.233936 2.864329 0.587356 73.0 64.0 109.0
-15.449542 2.326759 0.441324 73.0 64.0 109.0
-24.655663 2.804622 0.463902 126.0 182.0 132.0
-16.115208 1.246390 0.146698 126.0 182.0 132.0
-12.396198 2.339282 0.016733 126.0 182.0 132.0
-12.897051 1.949481 -0.107455 126.0 182.0 132.0
-20.321434 2.322734 -0.364878 126.0 182.0 132.0
-19.217907 1.492097 -0.528993 176.0 69.0 66.0
-9.991668 1.889136 -0.358297 126.0 182.0 132.0
-12.923323 1.958759 -0.584861 126.0 182.0 132.0
-12.223540 1.403415 -0.668721 176.0 69.0 66.0
-12.451470 0.972866 -0.799775 98.0 58.0 18.0
-8.666818 1.643659 -0.633247 126.0 182.0 132.0
-9.920403 1.509990 -0.818652 176.0 69.0 66.0
-9.871701 1.136886 -0.904159 176.0 69.0 66.0
-9.862609 0.772497 -0.997724 98.0 58.0 18.0
-8.445992 1.605445 -0.935779 176.0 69.0 66.0
-8.439207 1.289661 -1.012406 176.0 69.0 66.0
-8.286477 0.958279 -1.069633 176.0 69.0 66.0
-8.051335 0.634869 -1.115511 98.0 58.0 18.0
-7.402521 1.412588 -1.100338 98.0 58.0 18.0
-7.057561 1.081420 -1.111956 176.0 69.0 66.0
-7.014744 0.814065 -1.169457 98.0 58.0 18.0
-6.764791 0.533897 -1.193594 239.0 220.0 109.0
-6.269294 1.204279 -1.174201 98.0 58.0 18.0
-6.144236 0.944875 -1.204080 176.0 69.0 66.0
-6.043939 0.704289 -1.240518 239.0 220.0 109.0
-5.816494 0.459667 -1.249878 239.0 220.0 109.0
-5.435451 1.047351 -1.232550 176.0 69.0 66.0
-5.356588 0.827960 -1.261220 239.0 220.0 109.0
-23.157904 4.397241 4.390033 73.0 64.0 109.0
-22.748571 3.454766 4.049313 73.0 64.0 109.0
-23.467651 2.688479 3.924858 73.0 64.0 109.0
-15.919124 3.026190 2.406991 73.0 64.0 109.0
-15.569571 2.374241 2.182070 73.0 64.0 109.0
-25.173885 2.901754 3.264635 73.0 64.0 109.0
-24.227623 4.616134 2.747274 73.0 64.0 109.0
-15.909340 2.434294 1.631698 73.0 64.0 109.0
-15.399586 1.784346 1.425309 73.0 64.0 109.0
-23.616398 4.505656 1.791298 73.0 64.0 109.0
-15.506791 2.377685 1.017798 73.0 64.0 109.0
-15.100952 1.757490 0.838794 73.0 64.0 109.0
-15.623568 2.987244 0.602729 73.0 64.0 109.0
-15.101474 2.321742 0.431582 73.0 64.0 109.0
-22.094759 2.582002 0.415865 126.0 182.0 132.0
-16.081406 1.293420 0.146426 126.0 182.0 132.0
-12.456727 2.390305 0.016825 126.0 182.0 132.0
-13.068898 2.016487 -0.108937 126.0 182.0 132.0
-20.215904 2.373526 -0.363112 126.0 182.0 132.0
-19.225195 1.552015 -0.529322 176.0 69.0 66.0
-11.294042 2.171287 -0.405237 126.0 182.0 132.0
-12.673401 1.960672 -0.573820 126.0 182.0 132.0
-12.222152 1.441261 -0.668884 176.0 69.0 66.0
-12.895040 1.047336 -0.828468 176.0 69.0 66.0
-8.661735 1.670241 -0.633247 126.0 182.0 132.0
-10.066409 1.563827 -0.831093 176.0 69.0 66.0
-9.908715 1.171963 -0.907874 98.0 58.0 18.0
-9.809617 0.798634 -0.992606 98.0 58.0 18.0
-8.438098 1.630784 -0.935454 176.0 69.0 66.0
-8.355736 1.303151 -1.002867 176.0 69.0 66.0
-8.273648 0.982527 -1.068361 176.0 69.0 66.0
-8.043426 0.659082 -1.114690 176.0 69.0 66.0
-7.397181 1.435103 -1.100193 98.0 58.0 18.0
-7.060067 1.103983 -1.112880 176.0 69.0 66.0
-7.004377 0.834648 -1.168150 176.0 69.0 66.0
-6.741526 0.552877 -1.189783 239.0 220.0 109.0
-6.277153 1.225770 -1.176372 176.0 69.0 66.0
-6.145187 0.964330 -1.204841 176.0 69.0 66.0
-6.026183 0.720966 -1.237321 239.0 220.0 109.0
-5.837471 0.479351 -1.254695 239.0 220.0 109.0
-5.469569 1.071340 -1.241026 176.0 69.0 66.0
-5.176998 0.816471 -1.219519 239.0 220.0 109.0
-23.457050 4.528647 4.449356 73.0 64.0 109.0
-23.547604 3.650057 4.193516 73.0 64.0 109.0
-15.303752 2.957886 2.315307 73.0 64.0 109.0
-23.317875 3.629035 3.269537 73.0 64.0 109.0
-24.945227 2.952973 3.236141 73.0 64.0 109.0
-15.619248 3.025652 1.772178 73.0 64.0 109.0
-15.578395 2.432591 1.598513 73.0 64.0 109.0
-15.811324 1.881232 1.463945 73.0 64.0 109.0
-22.264120 1.834808 1.837042 73.0 64.0 109.0
-16.375563 3.176312 1.242815 73.0 64.0 109.0
-15.378157 2.406273 1.009835 73.0 64.0 109.0
-15.929204 3.096369 0.614883 73.0 64.0 109.0
-15.726294 2.467215 0.449653 73.0 64.0 109.0
-22.289246 2.674071 0.419678 126.0 182.0 132.0
-25.345711 2.116826 0.230838 126.0 182.0 132.0
-12.975417 2.531134 0.017536 126.0 182.0 132.0
-11.509830 1.812098 -0.095988 126.0 182.0 132.0
-20.181725 2.432306 -0.362630 126.0 182.0 132.0
-19.395662 1.625684 -0.534151 176.0 69.0 66.0
-9.842573 1.923572 -0.353367 126.0 182.0 132.0
-11.113143 1.754216 -0.503416 126.0 182.0 132.0
-12.217673 1.478751 -0.668884 176.0 69.0 66.0
-12.123073 1.022085 -0.779069 98.0 58.0 18.0
-8.913995 1.747266 -0.652079 126.0 182.0 132.0
-10.079283 1.597512 -0.832557 176.0 69.0 66.0
-8.110712 0.984543 -0.743407 176.0 69.0 66.0
-9.788283 0.827134 -0.990700 176.0 69.0 66.0
-8.430129 1.656089 -0.935130 176.0 69.0 66.0
-8.251666 1.312865 -0.990856 176.0 69.0 66.0
-8.243027 1.004546 -1.064800 176.0 69.0 66.0
-8.005832 0.680734 -1.109765 98.0 58.0 18.0
-7.332553 1.445922 -1.091236 176.0 69.0 66.0
-7.064453 1.126883 -1.114110 176.0 69.0 66.0
-6.999825 0.855894 -1.167823 98.0 58.0 18.0
-6.778070 0.576814 -1.196539 176.0 69.0 66.0
-6.312915 1.252872 -1.183789 98.0 58.0 18.0
-6.146077 0.983799 -1.205601 176.0 69.0 66.0
-6.001575 0.736705 -1.232727 239.0 220.0 109.0
-5.835973 0.497257 -1.254695 239.0 220.0 109.0
-5.444239 1.083732 -1.236027 239.0 220.0 109.0
-5.412951 0.870712 -1.275725 176.0 69.0 66.0
-23.723066 3.751821 4.226794 73.0 64.0 109.0
-15.309165 3.007684 2.317511 73.0 64.0 109.0
-15.496992 2.460565 2.173973 73.0 64.0 109.0
-24.914389 3.026858 3.233330 73.0 64.0 109.0
-15.571862 3.066069 1.767860 73.0 64.0 109.0
-15.585596 2.482722 1.600026 73.0 64.0 109.0
-15.644359 1.910060 1.449021 73.0 64.0 109.0
-22.267324 1.903869 1.837779 73.0 64.0 109.0
-16.395090 3.232323 1.245044 73.0 64.0 109.0
-15.293839 2.441173 1.004785 73.0 64.0 109.0
-15.067090 1.847320 0.837527 73.0 64.0 109.0
-16.036291 3.168273 0.619389 73.0 64.0 109.0
-15.135308 2.422099 0.432966 73.0 64.0 109.0
-22.451620 2.763450 0.422893 126.0 182.0 132.0
-24.715458 2.140563 0.225156 126.0 182.0 132.0
-12.822417 2.542149 0.017339 126.0 182.0 132.0
-12.064026 1.937298 -0.100658 126.0 182.0 132.0
-20.039217 2.477527 -0.360204 126.0 182.0 132.0
-19.462286 1.691413 -0.536126 176.0 69.0 66.0
-9.813100 1.949087 -0.352522 126.0 182.0 132.0
-11.288202 1.817361 -0.511597 126.0 182.0 132.0
-12.156596 1.509215 -0.665791 176.0 69.0 66.0
-12.120873 1.059360 -0.779133 176.0 69.0 66.0
-8.998589 1.792533 -0.658666 126.0 182.0 132.0
-10.116643 1.635266 -0.836053 176.0 69.0 66.0
-9.730370 1.211453 -0.892197 176.0 69.0 66.0
-9.760921 0.854989 -0.988191 176.0 69.0 66.0
-8.417210 1.680387 -0.934264 176.0 69.0 66.0
-8.301512 1.346921 -0.997333 176.0 69.0 66.0
-8.218252 1.027124 -1.062001 176.0 69.0 66.0
-7.938579 0.699553 -1.100734 176.0 69.0 66.0
-7.324201 1.467633 -1.090658 126.0 182.0 132.0
-7.072666 1.150455 -1.115957 176.0 69.0 66.0
-6.988356 0.876260 -1.166353 98.0 58.0 18.0
-6.759590 0.596136 -1.193594 176.0 69.0 66.0
-6.309042 1.272233 -1.183789 166.0 68.0 60.0
-6.136248 1.001543 -1.204270 176.0 69.0 66.0
-5.973037 0.751810 -1.227333 239.0 220.0 109.0
-5.809095 0.512923 -1.249249 239.0 220.0 109.0
-5.316514 1.075275 -1.207773 176.0 69.0 66.0
-5.257432 0.862251 -1.239690 239.0 220.0 109.0
-22.271893 4.441761 4.229643 73.0 64.0 109.0
-23.662830 3.816743 4.218128 73.0 64.0 109.0
-23.507505 2.912483 3.935840 73.0 64.0 109.0
-15.360975 3.066838 2.326768 73.0 64.0 109.0
-14.901711 2.412942 2.091493 73.0 64.0 109.0
-15.862226 1.976509 2.059340 73.0 64.0 109.0
-24.186060 4.839313 2.747495 73.0 64.0 109.0
-15.476757 2.514095 1.589637 73.0 64.0 109.0
-15.748102 1.971780 1.459184 73.0 64.0 109.0
-22.377527 1.982465 1.847368 73.0 64.0 109.0
-15.824814 3.170359 1.202470 73.0 64.0 109.0
-15.076486 2.453935 0.990995 73.0 64.0 109.0
-22.212101 2.792540 1.235164 73.0 64.0 109.0
-16.045109 3.221194 0.620108 73.0 64.0 109.0
-15.709872 2.563503 0.449625 73.0 64.0 109.0
-21.099926 2.662816 0.397585 126.0 182.0 132.0
-21.353384 1.915401 0.194581 126.0 182.0 132.0
-12.621438 2.542572 0.017078 126.0 182.0 132.0
-11.909015 1.949903 -0.099415 126.0 182.0 132.0
-20.057310 2.542264 -0.360668 126.0 182.0 132.0
-19.414194 1.747262 -0.534946 176.0 69.0 66.0
-9.718906 1.961391 -0.349353 126.0 182.0 132.0
-12.510891 2.053607 -0.567293 126.0 182.0 132.0
-12.150918 1.546378 -0.665736 176.0 69.0 66.0
-12.116573 1.096451 -0.779069 176.0 69.0 66.0
-9.074188 1.836554 -0.664609 126.0 182.0 132.0
-10.031920 1.653169 -0.829467 176.0 69.0 66.0
-7.997828 1.020675 -0.733621 176.0 69.0 66.0
-9.757261 0.884841 -0.988091 98.0 58.0 18.0
-8.481190 1.720234 -0.941947 98.0 58.0 18.0
-8.257172 1.365740 -0.992504 176.0 69.0 66.0
-8.115695 1.039604 -1.049156 176.0 69.0 66.0
-7.960072 0.726065 -1.104018 98.0 58.0 18.0
-7.316755 1.489504 -1.090224 126.0 182.0 132.0
-7.072027 1.172633 -1.116419 176.0 69.0 66.0
-6.993463 0.898702 -1.167660 98.0 58.0 18.0
-6.749883 0.616155 -1.192208 176.0 69.0 66.0
-6.282948 1.287044 -1.179628 176.0 69.0 66.0
-6.137989 1.021170 -1.205221 176.0 69.0 66.0
-5.926972 0.764491 -1.218344 239.0 220.0 109.0
-5.802625 0.530298 -1.248202 239.0 220.0 109.0
-5.274945 1.083723 -1.199079 239.0 220.0 109.0
-5.348906 0.894113 -1.261900 176.0 69.0 66.0
-23.871611 3.925599 4.257472 73.0 64.0 109.0
-23.711798 3.011685 3.971573 73.0 64.0 109.0
-15.375730 3.118867 2.330441 73.0 64.0 109.0
-15.088723 2.490752 2.118804 73.0 64.0 109.0
-23.983355 3.063192 3.114883 73.0 64.0 109.0
-15.555677 3.162153 1.768192 73.0 64.0 109.0
-21.235481 3.516463 2.182221 73.0 64.0 109.0
-15.379493 1.973569 1.425584 73.0 64.0 109.0
-22.116276 2.027724 1.826305 73.0 64.0 109.0
-16.193192 3.295866 1.231225 73.0 64.0 109.0
-15.290385 2.536928 1.005562 73.0 64.0 109.0
-15.289181 1.969846 0.850528 73.0 64.0 109.0
-24.946070 2.300345 1.143734 73.0 64.0 109.0
-24.773853 5.052681 0.958050 73.0 64.0 109.0
-15.560928 2.588234 0.445587 73.0 64.0 109.0
-22.097107 2.857561 0.416538 126.0 182.0 132.0
-21.241865 1.971109 0.193619 126.0 182.0 132.0
-14.789481 3.026565 0.020024 126.0 182.0 132.0
-11.726424 1.956966 -0.097940 126.0 182.0 132.0
-12.756826 1.656709 -0.229482 126.0 182.0 132.0
-19.407747 1.806723 -0.534919 98.0 58.0 18.0
-12.352278 2.532301 -0.444288 126.0 182.0 132.0
-10.343753 1.730487 -0.469265 126.0 182.0 132.0
-12.242161 1.596172 -0.671001 126.0 182.0 132.0
-12.047574 1.127482 -0.774852 176.0 69.0 66.0
-9.293221 1.910583 -0.681077 126.0 182.0 132.0
-9.979622 1.676015 -0.825564 176.0 69.0 66.0
-9.669429 1.264164 -0.887304 98.0 58.0 18.0
-9.747566 0.914122 -0.987388 98.0 58.0 18.0
-8.517739 1.754871 -0.946600 176.0 69.0 66.0
-8.224545 1.386279 -0.989089 176.0 69.0 66.0
-8.056411 1.057142 -1.041906 176.0 69.0 66.0
-7.945972 0.749366 -1.102376 176.0 69.0 66.0
-7.343160 1.518356 -1.094847 126.0 182.0 132.0
-7.072294 1.194983 -1.117034 98.0 58.0 18.0
-6.941766 0.913716 -1.159491 98.0 58.0 18.0
-6.745019 0.636582 -1.191688 176.0 69.0 66.0
-6.276082 1.305712 -1.179085 176.0 69.0 66.0
-6.139667 1.040817 -1.206172 176.0 69.0 66.0
-5.912942 0.781131 -1.215947 176.0 69.0 66.0
-5.806812 0.548650 -1.249459 239.0 220.0 109.0
-5.350904 1.116449 -1.217119 176.0 69.0 66.0
-5.349978 0.911173 -1.262806 176.0 69.0 66.0
-23.877911 4.001910 4.260765 73.0 64.0 109.0
-23.637882 3.076016 3.960755 73.0 64.0 109.0
-24.692438 2.307289 3.875595 73.0 64.0 109.0
-15.550160 3.203950 2.358358 73.0 64.0 109.0
-15.394567 2.589781 2.162857 73.0 64.0 109.0
-24.400648 3.192600 3.170337 73.0 64.0 109.0
-24.158831 4.988228 2.747827 73.0 64.0 109.0
-24.178476 4.080056 2.485926 73.0 64.0 109.0
-15.376328 2.021132 1.425858 73.0 64.0 109.0
-22.440350 2.126881 1.853597 73.0 64.0 109.0
-16.230856 3.355423 1.234865 73.0 64.0 109.0
-15.296306 2.586155 1.006468 73.0 64.0 109.0
-15.624580 2.061810 0.869534 73.0 64.0 109.0
-16.086273 1.533145 0.737740 73.0 64.0 109.0
-15.525024 3.216005 0.600760 73.0 64.0 109.0
-15.228669 2.581008 0.436298 73.0 64.0 109.0
-21.835487 2.891866 0.411771 126.0 182.0 132.0
-24.668829 2.365466 0.224920 126.0 182.0 132.0
-12.610495 2.620985 0.017085 126.0 182.0 132.0
-12.034841 2.046406 -0.100568 126.0 182.0 132.0
-15.422738 2.051061 -0.277551 126.0 182.0 132.0
-19.435944 1.869511 -0.535851 126.0 182.0 132.0
-9.647985 2.008766 -0.347240 126.0 182.0 132.0
-10.338395 1.762213 -0.469265 126.0 182.0 132.0
-12.237206 1.633723 -0.671001 126.0 182.0 132.0
-11.985452 1.158772 -0.771081 176.0 69.0 66.0
-9.256072 1.932561 -0.678786 126.0 182.0 132.0
-10.007834 1.712339 -0.828328 176.0 69.0 66.0
-8.893607 1.190497 -0.816443 176.0 69.0 66.0
-9.736794 0.943255 -0.986586 98.0 58.0 18.0
-8.424740 1.762672 -0.936861 176.0 69.0 66.0
-8.209487 1.409657 -0.987794 176.0 69.0 66.0
-8.080655 1.085552 -1.045467 176.0 69.0 66.0
-7.911100 0.770572 -1.097861 176.0 69.0 66.0
-7.244533 1.521154 -1.080833 126.0 182.0 132.0
-7.073463 1.217513 -1.117804 176.0 69.0 66.0
-6.908621 0.930925 -1.154426 98.0 58.0 18.0
-6.744015 0.657368 -1.191861 239.0 220.0 109.0
-6.270122 1.324555 -1.178724 98.0 58.0 18.0
-6.122900 1.057309 -1.203510 176.0 69.0 66.0
-5.904691 0.798480 -1.214748 176.0 69.0 66.0
-5.806075 0.566557 -1.249668 239.0 220.0 109.0
-5.357002 1.134883 -1.219292 176.0 69.0 66.0
-5.302054 0.919758 -1.252155 176.0 69.0 66.0
-23.864548 4.074982 4.260592 73.0 64.0 109.0
-23.720251 3.160770 3.976162 73.0 64.0 109.0
-24.923233 2.406008 3.912959 73.0 64.0 109.0
-15.626426 3.269672 2.371434 73.0 64.0 109.0
-15.330901 2.627461 2.155034 73.0 64.0 109.0
-23.677065 3.171840 3.077573 73.0 64.0 109.0
-15.495128 3.248975 1.763543 73.0 64.0 109.0
-24.031513 4.131124 2.472107 73.0 64.0 109.0
-15.565461 2.094592 1.443986 73.0 64.0 109.0
-15.541032 1.521090 1.284085 73.0 64.0 109.0
-16.213654 3.403769 1.234345 73.0 64.0 109.0
-15.282399 2.632055 1.006080 73.0 64.0 109.0
-15.025475 2.029671 0.836536 73.0 64.0 109.0
-16.099388 1.584251 0.738561 73.0 64.0 109.0
-15.135666 3.183809 0.586068 73.0 64.0 109.0
-15.182263 2.621085 0.435196 73.0 64.0 109.0
-16.101883 2.182801 0.303772 126.0 182.0 132.0
-24.650511 2.440054 0.224820 126.0 182.0 132.0
-12.599459 2.659041 0.017081 126.0 182.0 132.0
-12.305374 2.131272 -0.102883 126.0 182.0 132.0
-15.545165 2.115898 -0.279870 126.0 182.0 132.0
-19.408234 1.926958 -0.535248 126.0 182.0 132.0
-9.409067 1.989159 -0.338859 126.0 182.0 132.0
-10.400855 1.805713 -0.472350 126.0 182.0 132.0
-12.298422 1.680315 -0.674637 126.0 182.0 132.0
-11.956022 1.192961 -0.769420 176.0 69.0 66.0
-9.393535 1.991357 -0.689312 126.0 182.0 132.0
-9.993697 1.741495 -0.827596 126.0 182.0 132.0
-9.472049 1.297520 -0.869906 157.0 66.0 54.0
-9.716033 0.971341 -0.984779 98.0 58.0 18.0
-8.584605 1.823628 -0.955256 176.0 69.0 66.0
-8.195342 1.433126 -0.986616 157.0 66.0 54.0
-8.037981 1.104934 -1.040380 176.0 69.0 66.0
-7.908699 0.794839 -1.097861 176.0 69.0 66.0
-7.201121 1.535121 -1.075054 126.0 182.0 132.0
-7.069695 1.239208 -1.117804 98.0 58.0 18.0
-6.847093 0.944031 -1.144624 98.0 58.0 18.0
-6.730207 0.676873 -1.189783 176.0 69.0 66.0
-6.265067 1.343579 -1.178543 157.0 66.0 54.0
-6.098355 1.072349 -1.199326 176.0 69.0 66.0
-5.826507 0.806117 -1.199167 176.0 69.0 66.0
-5.789716 0.582898 -1.246526 239.0 220.0 109.0
-5.354449 1.151518 -1.219509 176.0 69.0 66.0
-5.250292 0.927380 -1.240596 176.0 69.0 66.0
-23.661810 3.213856 4.876918 73.0 64.0 109.0
-23.132942 4.023136 4.132160 73.0 64.0 109.0
-24.043745 3.278982 4.032056 73.0 64.0 109.0
-24.396637 2.430740 3.831436 73.0 64.0 109.0
-25.058680 5.323573 3.805315 73.0 64.0 109.0
-15.372532 2.683170 2.162033 73.0 64.0 109.0
-23.934494 3.281105 3.112328 73.0 64.0 109.0
-15.480227 3.295463 1.762989 73.0 64.0 109.0
-15.866138 2.777601 1.633009 73.0 64.0 109.0
-15.384353 2.118294 1.427781 73.0 64.0 109.0
-26.304008 2.656022 2.174044 73.0 64.0 109.0
-24.195951 5.157065 1.843233 73.0 64.0 109.0
-15.619249 2.739437 1.028804 73.0 64.0 109.0
-16.173433 2.235286 0.900825 73.0 64.0 109.0
-16.114330 1.635653 0.739473 73.0 64.0 109.0
-14.660658 3.130889 0.568045 73.0 64.0 109.0
-15.498052 2.724594 0.444486 73.0 64.0 109.0
-15.560324 2.158023 0.293679 126.0 182.0 132.0
-24.415102 2.492414 0.222742 126.0 182.0 132.0
-11.127461 2.384067 0.015095 126.0 182.0 132.0
-11.262800 1.986309 -0.094216 126.0 182.0 132.0
-15.399960 2.144275 -0.277373 126.0 182.0 132.0
-19.356485 1.981809 -0.533986 126.0 182.0 132.0
-7.015792 1.505701 -0.252833 126.0 182.0 132.0
-10.327387 1.825615 -0.469265 126.0 182.0 132.0
-12.557250 1.754939 -0.689127 126.0 182.0 132.0
-11.980102 1.232496 -0.771209 176.0 69.0 66.0
-9.241114 1.988690 -0.678571 126.0 182.0 132.0
-9.823438 1.742895 -0.813936 126.0 182.0 132.0
-9.556787 1.339010 -0.878061 176.0 69.0 66.0
-9.707069 1.000533 -0.984177 176.0 69.0 66.0
-8.599378 1.854357 -0.957529 126.0 182.0 132.0
-8.171353 1.454781 -0.984261 176.0 69.0 66.0
-8.109201 1.140084 -1.050046 176.0 69.0 66.0
-7.869766 0.815322 -1.092799 176.0 69.0 66.0
-7.150923 1.547370 -1.068264 126.0 182.0 132.0
-7.076560 1.262801 -1.119496 176.0 69.0 66.0
-6.872495 0.969027 -1.149362 176.0 69.0 66.0
-6.711445 0.695791 -1.186837 98.0 58.0 18.0
-6.266681 1.364048 -1.179628 98.0 58.0 18.0
-5.910456 1.058012 -1.163006 176.0 69.0 66.0
-5.930727 0.839088 -1.221141 223.0 182.0 98.0
-5.777201 0.599548 -1.244222 239.0 220.0 109.0
-5.330865 1.163568 -1.214945 176.0 69.0 66.0
-5.167858 0.929178 -1.221786 176.0 69.0 66.0
-22.703764 4.891154 4.325401 73.0 64.0 109.0
-24.098026 4.267186 4.306869 73.0 64.0 109.0
-23.916330 3.336376 4.012387 73.0 64.0 109.0
-24.339922 2.500528 3.823716 73.0 64.0 109.0
-25.353577 5.467569 3.852626 73.0 64.0 109.0
-15.359352 2.729453 2.161347 73.0 64.0 109.0
-23.712160 3.324772 3.084729 73.0 64.0 109.0
-25.287436 2.614373 3.028716 73.0 64.0 109.0
-15.468101 3.342520 1.762768 73.0 64.0 109.0
-15.548031 2.771101 1.601136 73.0 64.0 109.0
-15.377781 2.165483 1.427781 73.0 64.0 109.0
-24.856394 2.586911 2.055044 73.0 64.0 109.0
-24.169294 5.228953 1.842416 73.0 64.0 109.0
-15.589159 2.783484 1.027380 73.0 64.0 109.0
-16.202091 2.289925 0.902808 73.0 64.0 109.0
-22.269176 2.329435 1.022237 73.0 64.0 109.0
-14.671492 3.180298 0.568840 73.0 64.0 109.0
-15.482732 2.770895 0.444288 73.0 64.0 109.0
-15.185379 2.153527 0.286726 126.0 182.0 132.0
-24.488888 2.575884 0.223486 126.0 182.0 132.0
-10.964726 2.384408 0.014884 126.0 182.0 132.0
-12.920005 2.319467 -0.108138 126.0 182.0 132.0
-15.444781 2.198840 -0.278300 126.0 182.0 132.0
-19.409962 2.047476 -0.535632 126.0 182.0 132.0
-9.524605 2.074719 -0.343472 126.0 182.0 132.0
-10.324688 1.857821 -0.469399 126.0 182.0 132.0
-12.662517 1.809274 -0.695205 126.0 182.0 132.0
-11.973287 1.268929 -0.771017 176.0 69.0 66.0
-9.132651 1.994684 -0.671053 126.0 182.0 132.0
-8.884300 1.604402 -0.736527 126.0 182.0 132.0
-9.528974 1.364935 -0.875887 176.0 69.0 66.0
-9.725721 1.032620 -0.986385 137.0 64.0 42.0
-8.605302 1.883281 -0.958827 126.0 182.0 132.0
-8.154149 1.477542 -0.982730 176.0 69.0 66.0
-8.118429 1.166792 -1.051699 176.0 69.0 66.0
-7.896778 0.842615 -1.096903 176.0 69.0 66.0
-7.167405 1.573971 -1.071442 126.0 182.0 132.0
-7.068763 1.283800 -1.118881 176.0 69.0 66.0
-6.870466 0.990248 -1.149525 166.0 68.0 60.0
-6.634851 0.708431 -1.173671 176.0 69.0 66.0
-6.256705 1.381995 -1.178543 98.0 58.0 18.0
-5.968997 1.087401 -1.175176 176.0 69.0 66.0
-5.834058 0.843676 -1.201764 239.0 220.0 109.0
-5.764640 0.616126 -1.241918 239.0 220.0 109.0
-5.327270 1.179918 -1.214945 176.0 69.0 66.0
-5.159234 0.943977 -1.220426 176.0 69.0 66.0
-22.687693 4.960576 4.325218 73.0 64.0 109.0
-21.529886 3.880591 3.849993 73.0 64.0 109.0
-24.034893 3.428122 4.034023 73.0 64.0 109.0
-24.390106 2.581326 3.832826 73.0 64.0 109.0
-26.960024 5.900621 4.099466 73.0 64.0 109.0
-15.258307 2.759813 2.148309 73.0 64.0 109.0
-15.832976 2.269553 2.060617 73.0 64.0 109.0
-23.403631 5.132523 2.668894 73.0 64.0 109.0
-15.990741 2.900650 1.647635 73.0 64.0 109.0
-15.589878 2.244149 1.448106 73.0 64.0 109.0
-15.465924 1.657583 1.279086 73.0 64.0 109.0
-24.069372 5.284687 1.836026 73.0 64.0 109.0
-21.085629 3.831682 1.390384 73.0 64.0 109.0
-16.100121 2.325916 0.897520 73.0 64.0 109.0
-16.078169 1.731717 0.738288 73.0 64.0 109.0
-13.435875 2.955644 0.521282 73.0 64.0 109.0
-15.406301 2.806024 0.442340 73.0 64.0 109.0
-15.217290 2.205699 0.287455 126.0 182.0 132.0
-20.643461 2.235455 0.188455 126.0 182.0 132.0
-11.001303 2.427733 0.014944 126.0 182.0 132.0
-12.426888 2.270316 -0.104069 126.0 182.0 132.0
-15.258878 2.220157 -0.275072 126.0 182.0 132.0
-19.427441 2.109606 -0.536290 126.0 182.0 132.0
-7.008373 1.549152 -0.252903 126.0 182.0 132.0
-9.918013 1.816075 -0.451162 126.0 182.0 132.0
-12.023567 1.755636 -0.660418 126.0 182.0 132.0
-11.855249 1.293211 -0.763668 176.0 69.0 66.0
-9.056375 2.007154 -0.665898 126.0 182.0 132.0
-9.461620 1.738650 -0.784826 126.0 182.0 132.0
-9.554302 1.398490 -0.878605 176.0 69.0 66.0
-9.740311 1.064399 -0.988191 176.0 69.0 66.0
-8.605308 1.910966 -0.959477 126.0 182.0 132.0
-8.129069 1.498770 -0.980257 176.0 69.0 66.0
-8.086352 1.187514 -1.048011 176.0 69.0 66.0
-7.886278 0.865973 -1.095809 98.0 58.0 18.0
-7.163508 1.596168 -1.071587 126.0 182.0 132.0
-7.071593 1.306737 -1.119958 98.0 58.0 18.0
-6.826402 1.005285 -1.142663 176.0 69.0 66.0
-6.580760 0.723082 -1.164490 98.0 58.0 18.0
-6.254355 1.401614 -1.178904 176.0 69.0 66.0
-5.919298 1.097120 -1.166048 176.0 69.0 66.0
-5.891540 0.870450 -1.214149 176.0 69.0 66.0
-5.777302 0.635412 -1.245060 239.0 220.0 109.0
-5.326482 1.196898 -1.215597 176.0 69.0 66.0
-5.226213 0.972812 -1.236970 176.0 69.0 66.0
-23.593414 3.426007 4.869114 73.0 64.0 109.0
-22.435307 4.977562 4.279994 73.0 64.0 109.0
-23.667439 4.340879 4.234593 73.0 64.0 109.0
-24.035000 3.503409 4.035826 73.0 64.0 109.0
-22.048025 4.896484 3.354830 73.0 64.0 109.0
-15.306271 2.817011 2.156269 73.0 64.0 109.0
-25.055365 3.670006 3.262335 73.0 64.0 109.0
-15.457002 3.439527 1.763875 73.0 64.0 109.0
-15.815442 2.918997 1.630488 73.0 64.0 109.0
-15.575038 2.290808 1.447374 73.0 64.0 109.0
-14.950592 1.648762 1.236879 73.0 64.0 109.0
-15.582581 2.881081 1.028092 73.0 64.0 109.0
-15.670138 2.312899 0.873941 73.0 64.0 109.0
-24.994820 2.769693 1.148113 73.0 64.0 109.0
-13.682268 3.053884 0.531202 73.0 64.0 109.0
-15.216773 2.819764 0.437145 73.0 64.0 109.0
-15.343972 2.272146 0.289978 126.0 182.0 132.0
-20.609673 2.295789 0.188210 126.0 182.0 132.0
-13.403149 3.000917 0.018219 126.0 182.0 132.0
-11.567492 2.150003 -0.096927 126.0 182.0 132.0
-15.661430 2.327816 -0.282456 126.0 182.0 132.0
-19.453659 2.172860 -0.537196 126.0 182.0 132.0
-8.715966 1.954669 -0.314738 126.0 182.0 132.0
-9.311346 1.734530 -0.423805 126.0 182.0 132.0
-11.310014 1.686900 -0.621506 126.0 182.0 132.0
-11.830400 1.327240 -0.762326 176.0 69.0 66.0
-9.297351 2.090507 -0.684085 126.0 182.0 132.0
-8.867431 1.657602 -0.735958 126.0 182.0 132.0
-9.227893 1.379643 -0.848974 176.0 69.0 66.0
-9.627250 1.081943 -0.977053 98.0 58.0 18.0
-8.651774 1.949157 -0.965320 126.0 182.0 132.0
-8.120529 1.522971 -0.979786 176.0 69.0 66.0
-8.066976 1.209963 -1.045976 176.0 69.0 66.0
-7.859960 0.887496 -1.092525 176.0 69.0 66.0
-7.146995 1.615520 -1.069853 126.0 182.0 132.0
-7.097654 1.334085 -1.124728 176.0 69.0 66.0
-6.827188 1.026810 -1.143317 98.0 58.0 18.0
-6.529578 0.737740 -1.155828 176.0 69.0 66.0
-6.255780 1.422104 -1.179990 98.0 58.0 18.0
-6.034569 1.137646 -1.189438 176.0 69.0 66.0
-5.894655 0.889398 -1.215348 176.0 69.0 66.0
-5.784070 0.654123 -1.246945 239.0 220.0 109.0
-5.334205 1.215837 -1.218205 176.0 69.0 66.0
-5.177269 0.980145 -1.226092 176.0 69.0 66.0
-23.795040 3.529860 4.912937 73.0 64.0 109.0
-22.522554 5.069468 4.299585 73.0 64.0 109.0
-24.012228 4.480308 4.298722 73.0 64.0 109.0
-23.228928 3.458726 3.902238 73.0 64.0 109.0
-24.633020 2.759975 3.873587 73.0 64.0 109.0
-21.936405 4.942363 3.340137 73.0 64.0 109.0
-15.256664 2.856301 2.150505 73.0 64.0 109.0
-15.744205 2.355507 2.050906 73.0 64.0 109.0
-15.403721 3.477303 1.759004 73.0 64.0 109.0
-15.608893 2.930422 1.610113 73.0 64.0 109.0
-15.265618 2.293167 1.419266 73.0 64.0 109.0
-23.167845 2.626933 1.917358 73.0 64.0 109.0
-14.522472 3.282095 1.109298 73.0 64.0 109.0
-15.490309 2.913197 1.022589 73.0 64.0 109.0
-15.581021 2.348611 0.869369 73.0 64.0 109.0
-15.301991 1.743163 0.703124 73.0 64.0 109.0
-14.626980 3.311886 0.568272 73.0 64.0 109.0
-15.256184 2.875508 0.438528 73.0 64.0 109.0
-15.348792 2.321004 0.290202 126.0 182.0 132.0
-21.824497 2.498923 0.199373 126.0 182.0 132.0
-9.146065 2.077258 0.012441 126.0 182.0 132.0
-11.946006 2.258294 -0.100156 126.0 182.0 132.0
-11.213780 1.701925 -0.202335 126.0 182.0 132.0
-19.309853 2.216799 -0.533410 126.0 182.0 132.0
-9.040277 2.056551 -0.326675 126.0 182.0 132.0
-9.994040 1.893447 -0.455140 126.0 182.0 132.0
-11.096498 1.689871 -0.610055 126.0 182.0 132.0
-11.804461 1.361014 -0.760920 176.0 69.0 66.0
-6.998803 1.596252 -0.515319 126.0 182.0 132.0
-8.748722 1.663207 -0.726525 126.0 182.0 132.0
-9.581968 1.462648 -0.881958 176.0 69.0 66.0
-9.576443 1.105994 -0.972236 157.0 66.0 54.0
-8.288138 1.893970 -0.925391 126.0 182.0 132.0
-8.107039 1.546203 -0.978726 98.0 58.0 18.0
-8.049500 1.232605 -1.044195 176.0 69.0 66.0
-7.824728 0.907839 -1.088010 176.0 69.0 66.0
-7.058095 1.618201 -1.057283 126.0 182.0 132.0
-7.088675 1.354926 -1.123959 176.0 69.0 66.0
-6.826931 1.048200 -1.143807 98.0 58.0 18.0
-6.539024 0.759132 -1.157907 176.0 69.0 66.0
-6.249471 1.440847 -1.179628 98.0 58.0 18.0
-6.057084 1.161145 -1.194572 166.0 68.0 60.0
-5.858004 0.902258 -1.208356 150.0 65.0 50.0
-5.795634 0.673445 -1.249878 239.0 220.0 109.0
-5.335205 1.233295 -1.219292 176.0 69.0 66.0
-5.187628 0.998601 -1.229264 176.0 69.0 66.0
-23.738567 3.595948 4.903532 73.0 64.0 109.0
-22.556734 5.149921 4.309106 73.0 64.0 109.0
-23.471996 4.454070 4.204435 73.0 64.0 109.0
-22.766659 3.461324 3.826348 73.0 64.0 109.0
-24.618547 2.834857 3.872661 73.0 64.0 109.0
-22.264425 5.088091 3.392444 73.0 64.0 109.0
-15.239072 2.901427 2.149270 73.0 64.0 109.0
-15.804554 2.414132 2.059723 73.0 64.0 109.0
-21.127398 2.446672 2.533867 73.0 64.0 109.0
-15.411387 3.528759 1.761107 73.0 64.0 109.0
-15.636966 2.985386 1.613946 73.0 64.0 109.0
-15.705379 2.408521 1.460832 73.0 64.0 109.0
-22.290506 2.596744 1.845401 73.0 64.0 109.0
-14.526916 3.329977 1.110413 73.0 64.0 109.0
-15.270568 2.920406 1.008670 73.0 64.0 109.0
-15.590518 2.398983 0.870305 73.0 64.0 109.0
-15.441430 1.807053 0.709783 73.0 64.0 109.0
-14.686874 3.372849 0.570998 73.0 64.0 109.0
-13.090423 2.508914 0.376494 73.0 64.0 109.0
-15.519461 2.395537 0.293567 126.0 182.0 132.0
-24.366053 2.865695 0.222670 126.0 182.0 132.0
-8.895054 2.048966 0.012108 126.0 182.0 132.0
-12.627395 2.427253 -0.105931 126.0 182.0 132.0
-13.159916 2.038615 -0.237562 126.0 182.0 132.0
-16.071573 1.895014 -0.444115 126.0 182.0 132.0
-9.247188 2.133479 -0.334387 126.0 182.0 132.0
-11.413526 2.198673 -0.520090 126.0 182.0 132.0
-11.027127 1.713938 -0.606527 126.0 182.0 132.0
-11.791311 1.396168 -0.760345 176.0 69.0 66.0
-8.881063 2.054233 -0.654370 126.0 182.0 132.0
-9.128159 1.764375 -0.758481 126.0 182.0 132.0
-9.605971 1.496484 -0.884586 176.0 69.0 66.0
-9.522615 1.129393 -0.967119 176.0 69.0 66.0
-7.146283 1.656124 -0.798464 126.0 182.0 132.0
-8.098357 1.570311 -0.978255 176.0 69.0 66.0
-8.012362 1.252088 -1.039871 176.0 69.0 66.0
-7.806168 0.929966 -1.085821 176.0 69.0 66.0
-7.041532 1.637158 -1.055550 126.0 182.0 132.0
-7.081575 1.376102 -1.123497 98.0 58.0 18.0
-6.846100 1.072652 -1.147564 176.0 69.0 66.0
-6.535686 0.779073 -1.157734 176.0 69.0 66.0
-6.250767 1.461357 -1.180713 176.0 69.0 66.0
-6.059275 1.180850 -1.195713 176.0 69.0 66.0
-5.909414 0.928745 -1.219543 176.0 69.0 66.0
-5.794511 0.691338 -1.250087 239.0 220.0 109.0
-5.350403 1.254113 -1.223639 176.0 69.0 66.0
-5.171158 1.011893 -1.226092 176.0 69.0 66.0
-23.884285 3.693014 4.935948 73.0 64.0 109.0
-22.812830 5.282079 4.361104 73.0 64.0 109.0
-23.397299 4.514305 4.193516 73.0 64.0 109.0
-22.581440 3.504078 3.797007 73.0 64.0 109.0
-21.737034 5.037787 3.314425 73.0 64.0 109.0
-22.692953 4.392788 3.202428 73.0 64.0 109.0
-24.744562 5.745736 2.829639 73.0 64.0 109.0
-22.851200 4.435421 2.359945 73.0 64.0 109.0
-14.855762 2.324898 1.382462 73.0 64.0 109.0
-15.160409 1.813279 1.255564 73.0 64.0 109.0
-14.435040 3.355562 1.104172 73.0 64.0 109.0
-24.973867 4.855573 1.650580 73.0 64.0 109.0
-15.487406 2.431780 0.864962 73.0 64.0 109.0
-15.816675 1.900173 0.727296 73.0 64.0 109.0
-14.528524 3.383441 0.565243 73.0 64.0 109.0
-15.294178 2.979960 0.440138 73.0 64.0 109.0
-15.380682 2.422450 0.291081 126.0 182.0 132.0
-18.117704 2.187199 0.165629 126.0 182.0 132.0
-10.507160 2.454283 0.014312 126.0 182.0 132.0
-6.923813 1.352944 -0.058118 126.0 182.0 132.0
-13.478514 2.130333 -0.243430 126.0 182.0 132.0
-18.316406 2.216701 -0.506333 126.0 182.0 132.0
-9.070305 2.121999 -0.328225 126.0 182.0 132.0
-9.670473 1.893684 -0.440925 126.0 182.0 132.0
-11.227933 1.780445 -0.617870 126.0 182.0 132.0
-11.725551 1.424872 -0.756383 176.0 69.0 66.0
-7.132596 1.672874 -0.525916 126.0 182.0 132.0
-9.175513 1.802747 -0.762872 126.0 182.0 132.0
-9.605270 1.526573 -0.884948 176.0 69.0 66.0
-9.334413 1.136123 -0.948354 98.0 58.0 18.0
-7.637633 1.794700 -0.853974 126.0 182.0 132.0
-8.087656 1.593997 -0.977548 176.0 69.0 66.0
-8.010441 1.276976 -1.040125 176.0 69.0 66.0
-7.795412 0.952949 -1.084726 176.0 69.0 66.0
-7.017213 1.654213 -1.052660 126.0 182.0 132.0
-7.009464 1.384419 -1.112726 176.0 69.0 66.0
-6.842777 1.093651 -1.147564 98.0 58.0 18.0
-6.557705 0.802110 -1.162065 98.0 58.0 18.0
-6.173523 1.463288 -1.166965 176.0 69.0 66.0
-6.049845 1.198289 -1.194572 176.0 69.0 66.0
-5.807853 0.931050 -1.199167 176.0 69.0 66.0
-5.788481 0.708637 -1.249249 176.0 69.0 66.0
-5.412056 1.286093 -1.238636 176.0 69.0 66.0
-5.189045 1.031933 -1.231078 176.0 69.0 66.0
-23.720896 3.742301 4.904532 73.0 64.0 109.0
-23.914637 2.880570 4.680390 73.0 64.0 109.0
-24.008171 5.636509 4.592901 73.0 64.0 109.0
-21.625360 4.241282 3.878244 73.0 64.0 109.0
-15.970406 2.528410 2.686671 73.0 64.0 109.0
-22.493736 5.285929 3.432262 73.0 64.0 109.0
-22.260479 4.379968 3.143279 73.0 64.0 109.0
-15.045029 2.392674 1.962614 73.0 64.0 109.0
-24.907722 5.864216 2.850341 73.0 64.0 109.0
-23.989267 4.732737 2.478966 73.0 64.0 109.0
-15.149465 2.418501 1.410477 73.0 64.0 109.0
-16.356670 2.007278 1.355141 73.0 64.0 109.0
-14.328584 3.377183 1.096816 73.0 64.0 109.0
-15.602832 3.083307 1.031847 73.0 64.0 109.0
-15.580435 2.495389 0.870581 73.0 64.0 109.0
-15.122699 1.863884 0.695645 73.0 64.0 109.0
-14.686326 3.467725 0.571793 73.0 64.0 109.0
-15.440872 3.057743 0.444627 73.0 64.0 109.0
-12.875640 2.068408 0.243792 126.0 182.0 132.0
-21.354004 2.644384 0.195289 126.0 182.0 132.0
-9.699705 2.297081 0.013222 126.0 182.0 132.0
-12.086550 2.400285 -0.101515 126.0 182.0 132.0
-13.150121 2.119802 -0.237615 126.0 182.0 132.0
-15.540820 1.929187 -0.429767 126.0 182.0 132.0
-8.783700 2.083391 -0.318083 126.0 182.0 132.0
-7.108354 1.414625 -0.324302 126.0 182.0 132.0
-11.261847 1.821260 -0.620041 126.0 182.0 132.0
-11.709240 1.459358 -0.755616 176.0 69.0 66.0
-7.103171 1.688980 -0.524126 126.0 182.0 132.0
-9.440680 1.884945 -0.785395 126.0 182.0 132.0
-9.596608 1.555396 -0.884586 98.0 58.0 18.0
-9.323972 1.163893 -0.947652 98.0 58.0 18.0
-7.118579 1.695795 -0.796516 126.0 182.0 132.0
-8.087597 1.619777 -0.978137 176.0 69.0 66.0
-7.998653 1.300272 -1.039108 176.0 69.0 66.0
-7.791469 0.976737 -1.084589 176.0 69.0 66.0
-6.964948 1.664464 -1.045581 126.0 182.0 132.0
-6.865681 1.377920 -1.090567 98.0 58.0 18.0
-6.825758 1.112417 -1.145277 176.0 69.0 66.0
-6.649027 0.833992 -1.178695 176.0 69.0 66.0
-6.144141 1.476247 -1.162262 176.0 69.0 66.0
-5.973957 1.202316 -1.180310 176.0 69.0 66.0
-5.893934 0.963406 -1.217545 176.0 69.0 66.0
-5.789190 0.726758 -1.249878 176.0 69.0 66.0
-5.418523 1.305205 -1.241026 176.0 69.0 66.0
-5.222133 1.055178 -1.239690 176.0 69.0 66.0
